X,Y,Z
0.8870036602020264,-1.0520679950714111,0.5020627379417419
0.9044252634048462,-1.0219926834106445,0.539173424243927
0.8885276317596436,-0.9623751640319824,0.5192916393280029
0.9104924201965332,-0.9209408760070801,0.4751756191253662
0.911121129989624,0.785610556602478,0.4531739354133606
0.9143997430801392,0.8432008028030396,0.45724785327911377
0.8954331874847412,0.9799610376358032,0.48634791374206543
0.8888105154037476,1.042299509048462,0.49106669425964355
0.8920649290084839,1.1039633750915527,0.5254475474357605
0.9049164056777954,1.07361900806427,0.5338397026062012
0.8839563131332397,1.1635394096374512,0.5259642601013184
0.880683183670044,1.228153109550476,0.5278653502464294
0.8993674516677856,1.26918625831604,0.5277289152145386
0.9010541439056396,1.304026484489441,0.4908595681190491
0.9013549089431763,1.3593297004699707,0.4569591283798218
0.8986445665359497,3.7349913120269775,0.44459521770477295
0.8902158737182617,3.7984883785247803,0.47010743618011475
0.8562602996826172,3.8174495697021484,0.5301437377929688
0.9126958847045898,3.8526816368103027,0.5238747596740723
0.9246582984924316,-1.0574054718017578,0.5399514436721802
0.9448872804641724,-0.9280217885971069,0.5310724377632141
0.9623156785964966,-0.9114015102386475,0.5156819820404053
0.9628770351409912,0.7771810293197632,0.48634791374206543
0.9583817720413208,0.8274657726287842,0.49123668670654297
0.9668920040130615,0.8737179040908813,0.5299160480499268
0.9557064771652222,0.915143609046936,0.5403593182563782
0.9334864616394043,0.9640380144119263,0.526506781578064
0.931982159614563,1.0356777906417847,0.5515632629394531
0.960067868232727,1.2715154886245728,0.5430946350097656
0.959013819694519,1.3071867227554321,0.48678457736968994
0.9656875133514404,3.74489426612854,0.4433462619781494
0.9636805057525635,3.809028148651123,0.46057796478271484
0.9701845645904541,3.8631672859191895,0.5223246812820435
1.0246927738189697,-0.9090448617935181,0.5234676599502563
1.049376368522644,0.5750707387924194,0.4518352150917053
1.0384577512741089,0.6420120596885681,0.454397976398468
1.0449209213256836,0.6948450803756714,0.4747698903083801
1.0042163133621216,0.7717634439468384,0.5299990177154541
1.034805417060852,0.744312047958374,0.523248016834259
0.9979960918426514,0.8347711563110352,0.5468776822090149
0.996153712272644,1.2478182315826416,0.5280346274375916
1.032334566116333,1.206792950630188,0.546062707901001
1.0335220098495483,3.802414894104004,0.4468228220939636
1.0260971784591675,3.8649277687072754,0.48038262128829956
0.9937849044799805,3.8781208992004395,0.5297665596008301
1.0369843244552612,3.9132912158966064,0.5403602123260498
1.091320276260376,-0.8986105918884277,0.5188297033309937
1.110385775566101,-0.8451414108276367,0.4668513536453247
1.1160049438476562,-0.7921497821807861,0.45783257484436035
1.1089814901351929,0.44841277599334717,0.4495769739151001
1.0949327945709229,0.5088331699371338,0.4530859589576721
1.110385775566101,0.567847490310669,0.4791145920753479
1.0905178785324097,0.6376792192459106,0.49071383476257324
1.0830541849136353,0.7051241397857666,0.5451323390007019
1.114359974861145,0.6686991453170776,0.5596829652786255
1.0550352334976196,1.1755810976028442,0.531745433807373
1.0971333980560303,1.1284078359603882,0.5550265908241272
1.1033605337142944,3.8104405403137207,0.44525909423828125
1.0921223163604736,3.869454860687256,0.4726543426513672
1.1145988702774048,3.918163299560547,0.5285442471504211
1.1567431688308716,-0.8816612958908081,0.5277918577194214
1.1606767177581787,-0.8416094779968262,0.4880944490432739
1.1808302402496338,-0.6331969499588013,0.4651091694831848
1.1834380626678467,-0.5701682567596436,0.4508001208305359
1.1672801971435547,0.43998318910598755,0.46788710355758667
1.1575461626052856,0.5028110146522522,0.49005430936813354
1.1522507667541504,0.5644756555557251,0.5289514064788818
1.1775373220443726,0.5374908447265625,0.546062707901001
1.135676383972168,0.6212229132652283,0.5346556901931763
1.1200745105743408,1.1004035472869873,0.522432804107666
1.1686086654663086,1.0559108257293701,0.5457141995429993
1.1707936525344849,3.8104405403137207,0.4433884024620056
1.1595536470413208,3.8703911304473877,0.4641619324684143
1.182033658027649,3.923938751220703,0.5262807607650757
1.198894739151001,-0.8530365228652954,0.5275981426239014
1.241449236869812,-0.8276840448379517,0.5340743660926819
1.2424540519714355,-0.7687298059463501,0.47422629594802856
1.2417519092559814,-0.71416175365448,0.47150689363479614
1.2185715436935425,-0.6540013551712036,0.5166612267494202
1.2452646493911743,-0.6713161468505859,0.5244433283805847
1.2359919548034668,-0.6269198656082153,0.5236558318138123
1.242251992225647,-0.5753848552703857,0.47645843029022217
1.2430559396743774,-0.508745551109314,0.4560859203338623
1.251686453819275,0.1716281920671463,0.44665759801864624
1.247606873512268,0.24188432097434998,0.44815289974212646
1.2399263381958008,0.304838627576828,0.4511405825614929
1.2466692924499512,0.3571121096611023,0.4761549234390259
1.219167709350586,0.4341639578342438,0.5263325572013855
1.2440001964569092,0.4076853096485138,0.5334333777427673
1.2019400596618652,0.4975913465023041,0.5438224077224731
1.25088369846344,1.0325113534927368,0.47812992334365845
1.199944257736206,1.037188172340393,0.5313962697982788
1.2336633205413818,1.0020164251327515,0.5509526133537292
1.2382375001907349,3.8118467330932617,0.44332385063171387
1.2269974946975708,3.8714849948883057,0.46155232191085815
1.2494776248931885,3.925732135772705,0.5254082679748535
1.2860056161880493,-0.7860474586486816,0.5410587787628174
1.285068392753601,-0.7251685857772827,0.5253660678863525
1.2798244953155518,-0.5875898599624634,0.5325025916099548
1.3011767864227295,-0.5482556819915771,0.526391327381134
1.3000532388687134,-0.5083452463150024,0.49629122018814087
1.3036659955978394,-0.4389146864414215,0.48547542095184326
1.3175156116485596,-0.3642444908618927,0.47462743520736694
1.3098889589309692,-0.30210021138191223,0.4523211121559143
1.3159445524215698,-0.23660463094711304,0.4620645046234131
1.316934585571289,-0.16193437576293945,0.4622443914413452
1.3109005689620972,-0.09978151321411133,0.4498675465583801
1.3185101747512817,-0.03426690399646759,0.46268022060394287
1.3137917518615723,0.039577826857566833,0.46190565824508667
1.3030649423599243,0.10902275890111923,0.4645656943321228
1.3098868131637573,0.16994084417819977,0.47102081775665283
1.3028619289398193,0.23064246773719788,0.4731403589248657
1.2936303615570068,0.3017061948776245,0.4786112904548645
1.28713059425354,0.3722841143608093,0.5429209470748901
1.3157882690429688,0.3368724584579468,0.5348183512687683
1.2900177240371704,0.9857603311538696,0.542658805847168
1.311293363571167,1.0240854024887085,0.46641552448272705
1.3056741952896118,3.8137190341949463,0.4436430335044861
1.2944341897964478,3.871553421020508,0.4623405933380127
1.3169143199920654,3.9251904487609863,0.5264493823051453
1.3326510190963745,-0.5145257711410522,0.5361688733100891
1.340800404548645,-0.4549698531627655,0.533297061920166
1.350632667541504,-0.3903418481349945,0.5312605500221252
1.3783363103866577,-0.34859463572502136,0.5451323390007019
1.3608077764511108,-0.3040280044078827,0.49596530199050903
1.3640822172164917,-0.2447948157787323,0.5248771905899048
1.382860541343689,-0.2785031497478485,0.5365563035011292
1.359458565711975,-0.18803176283836365,0.5239124298095703
1.3693251609802246,-0.14363548159599304,0.5250225067138672
1.3607310056686401,-0.10171177983283997,0.4946555495262146
1.3635916709899902,-0.04245460033416748,0.5250052809715271
1.3827528953552246,-0.07618443667888641,0.5353069305419922
1.358669400215149,0.017101317644119263,0.5241805911064148
1.3568261861801147,0.09095935523509979,0.5354803204536438
1.3523612022399902,0.156454935669899,0.5318041443824768
1.3530690670013428,0.2173939347267151,0.5430953502655029
1.3464159965515137,0.28544554114341736,0.5305817127227783
1.384639859199524,0.6281495094299316,0.4719126224517822
1.3262567520141602,0.6417300701141357,0.5228399038314819
1.3748058080673218,0.5934052467346191,0.5554337501525879
1.3116592168807983,0.7027136087417603,0.538729727268219
1.322675108909607,0.7685685157775879,0.5550265908241272
1.3761168718338013,0.8194975852966309,0.538729727268219
1.3773332834243774,0.9808954000473022,0.48716646432876587
1.3360235691070557,0.9762626886367798,0.5271176695823669
1.3707096576690674,0.9406893253326416,0.5579366087913513
1.3731181621551514,3.8144185543060303,0.4450429081916809
1.3618780374526978,3.8713021278381348,0.4650667905807495
1.3843581676483154,3.9232892990112305,0.5313968658447266
1.4034595489501953,-0.3138987421989441,0.546062707901001
1.3967164754867554,-0.11327603459358215,0.5354112982749939
1.4304378032684326,0.6086351871490479,0.5343286991119385
1.4433619976043701,0.6392011642456055,0.48543959856033325
1.4390392303466797,0.8207350969314575,0.538729727268219
1.4405548572540283,0.9372032880783081,0.5468776822090149
1.4517948627471924,0.9688159227371216,0.486581027507782
1.4405548572540283,3.8146514892578125,0.44556039571762085
1.4293148517608643,3.87029767036438,0.47165530920028687
1.4525976181030273,3.9204094409942627,0.5448418259620667
1.4709336757659912,0.6408871412277222,0.5428037047386169
1.5003923177719116,0.7027136087417603,0.538729727268219
1.4936020374298096,0.7694903612136841,0.538729727268219
1.5079987049102783,0.9243580102920532,0.5436188578605652
1.5192387104034424,0.9674135446548462,0.4682503342628479
1.5079987049102783,3.8144185543060303,0.44753146171569824
1.4967585802078247,3.8701577186584473,0.46986085176467896
1.5147430896759033,3.916736364364624,0.5350626707077026
1.5686888694763184,0.9312207698822021,0.5323745012283325
1.5866700410842896,0.9710650444030762,0.47436171770095825
1.5686888694763184,3.8087544441223145,0.4475247859954834
1.5682064294815063,3.864436149597168,0.487842857837677
1.5712170600891113,3.910723924636841,0.55298912525177
1.6372426748275757,0.9344925880432129,0.5563851594924927
1.6462337970733643,0.9726814031600952,0.4971736669540405
1.636539101600647,3.8099005222320557,0.4597368836402893
1.6151620149612427,3.8780689239501953,0.544285237789154
1.6569082736968994,3.858560800552368,0.5282357335090637
1.6799529790878296,0.9631297588348389,0.5444334745407104
1.7042737007141113,0.9767361879348755,0.5148665308952332
1.7018647193908691,3.7505149841308594,0.44403403997421265
1.7093582153320312,3.8036320209503174,0.47434288263320923
1.7159144878387451,3.8461084365844727,0.5337250232696533
1.7903845310211182,0.9668502807617188,0.4816945791244507
1.7389628887176514,0.9681875705718994,0.522433340549469
1.7741260528564453,0.9315085411071777,0.5550272464752197
1.7728211879730225,3.7527318000793457,0.45912957191467285
1.758634328842163,3.8034989833831787,0.5217897891998291
1.7867337465286255,3.7970852851867676,0.5250483155250549
1.8423644304275513,0.9410593509674072,0.5448411107063293
1.8409583568572998,0.969660758972168,0.49289608001708984
1.84517502784729,3.7336559295654297,0.44866853952407837
1.840358018875122,3.792640209197998,0.49458473920822144
1.8148335218429565,3.814737558364868,0.5394284725189209
1.8519185781478882,3.828434705734253,0.5403593182563782
1.8788968324661255,0.9657059907913208,0.5354699492454529
1.908872127532959,0.9858114719390869,0.5153384804725647
1.9285417795181274,1.0299108028411865,0.45893919467926025
1.9041892290115356,3.6830713748931885,0.44333726167678833
1.9097291231155396,3.741737127304077,0.47101014852523804
1.8822695016860962,3.800778388977051,0.5266700387001038
1.9220620393753052,3.781236171722412,0.5323745012283325
1.968815565109253,0.9856284856796265,0.5242505669593811
1.9912956953048706,1.0311661958694458,0.4600341320037842
1.9754191637039185,3.676480770111084,0.45882081985473633
1.9631978273391724,3.7364912033081055,0.5213162899017334
1.996353268623352,3.7221484184265137,0.5288357138633728
2.0448639392852783,0.9904943704605103,0.5431224703788757
2.0534000396728516,1.0353716611862183,0.4767026901245117
2.0404741764068604,3.6170263290405273,0.44663649797439575
2.0446889400482178,3.6669437885284424,0.49063438177108765
2.0508713722229004,3.7000577449798584,0.5360806584358215
2.0972282886505127,1.0291861295700073,0.5423964262008667
2.1086103916168213,1.046353816986084,0.5173400640487671
2.1086103916168213,3.609360694885254,0.4600799083709717
2.0845839977264404,3.666302442550659,0.5250805616378784
2.1289796829223633,3.6559102535247803,0.52577143907547
2.176039934158325,1.061660647392273,0.5310907959938049
2.196408987045288,1.104525089263916,0.47354656457901
2.1815595626831055,3.5427167415618896,0.4456237554550171
2.180957794189453,3.6008737087249756,0.47953343391418457
2.187419891357422,3.641005277633667,0.5331611037254333
2.2469849586486816,1.078540563583374,0.5448411107063293
2.2455785274505615,1.107333779335022,0.49289608001708984
2.2485909461975098,3.4833059310913086,0.4475146532058716
2.242769956588745,3.5453929901123047,0.4719395637512207
2.227879762649536,3.5996992588043213,0.5244704484939575
2.2652502059936523,3.5828452110290527,0.530920684337616
2.283517360687256,1.107333779335022,0.538729727268219
2.3172414302825928,1.1392407417297363,0.5387299060821533
2.3172426223754883,1.1719707250595093,0.48983991146087646
2.3140790462493896,3.473271608352661,0.4645923376083374
2.3031904697418213,3.531345844268799,0.49192219972610474
2.3189280033111572,3.5710489749908447,0.546062707901001
2.3509628772735596,1.1680412292480469,0.535237729549408
2.380927324295044,1.191873550415039,0.5153761506080627
2.4007279872894287,1.2473182678222656,0.461966872215271
2.394787549972534,3.3963475227355957,0.45943641662597656
2.3657076358795166,3.4644365310668945,0.5151070952415466
2.3964128494262695,3.4483752250671387,0.5227344632148743
2.353860378265381,3.5324559211730957,0.5431662201881409
2.447890043258667,1.2048407793045044,0.545660138130188
2.4605350494384766,1.2513290643692017,0.49194997549057007
2.458529472351074,1.3104463815689087,0.44949543476104736
2.4567883014678955,3.2138121128082275,0.4421939253807068
2.45772647857666,3.276578664779663,0.4439901113510132
2.4436757564544678,3.34121036529541,0.44876629114151
2.4492950439453125,3.3969926834106445,0.49205219745635986
2.4554765224456787,3.43007755279541,0.5364476442337036
2.4891998767852783,1.2334073781967163,0.5443172454833984
2.522359609603882,1.2554075717926025,0.5362563729286194
2.5243663787841797,1.307839035987854,0.4693467617034912
2.5242340564727783,1.370067834854126,0.4449801445007324
2.5171408653259277,3.2532901763916016,0.4452163577079773
2.512524366378784,3.3320775032043457,0.4717779755592346
2.4891998767852783,3.3957064151763916,0.5273221731185913
2.5285425186157227,3.3743560314178467,0.5328221321105957
2.5841755867004395,1.2800076007843018,0.5438224077224731
2.5897932052612305,1.3197636604309082,0.49676573276519775
2.5796778202056885,1.3669750690460205,0.46126359701156616
2.5990285873413086,2.8679327964782715,0.4443100690841675
2.59588360786438,2.9393699169158936,0.4439389705657959
2.594477415084839,3.006817579269409,0.4440717101097107
2.5940093994140625,3.0742578506469727,0.4442358613014221
2.5940093994140625,3.1416800022125244,0.44605541229248047
2.578554630279541,3.206315279006958,0.44761037826538086
2.585580348968506,3.269551992416382,0.47158199548721313
2.5678791999816895,3.3308165073394775,0.5226367712020874
2.5985054969787598,3.3083343505859375,0.5315997004508972
2.623516321182251,1.3096481561660767,0.5485076308250427
2.634751319885254,1.365651249885559,0.5257307291030884
2.651151180267334,1.398165225982666,0.5157554745674133
2.6658709049224854,1.4523370265960693,0.4661253094673157
2.6646170616149902,1.5231958627700806,0.44718170166015625
2.667497396469116,1.576706051826477,0.4435475468635559
2.6619231700897217,2.7413034439086914,0.443966805934906
2.6520214080810547,2.805311918258667,0.44543009996414185
2.6611740589141846,2.867453098297119,0.45092105865478516
2.647686004638672,2.9213881492614746,0.4500052332878113
2.662668466567993,2.993468999862671,0.46280717849731445
2.647686004638672,3.056277275085449,0.4524329900741577
2.657698631286621,3.1256260871887207,0.4647924304008484
2.6429896354675293,3.20149827003479,0.47618699073791504
2.6367247104644775,3.262805700302124,0.5236558318138123
2.6653904914855957,3.2366647720336914,0.5338412523269653
2.7193353176116943,1.4076404571533203,0.5434998273849487
2.724111795425415,1.454622745513916,0.49758148193359375
2.725876808166504,1.5143613815307617,0.4718640446662903
2.7242720127105713,1.5818123817443848,0.4500119686126709
2.7375173568725586,2.596975564956665,0.44268208742141724
2.7266793251037598,2.727053642272949,0.4444591999053955
2.721863031387329,2.7932727336883545,0.45022982358932495
2.7151198387145996,2.8539671897888184,0.45719587802886963
2.715351104736328,2.9260261058807373,0.4883185625076294
2.7135918140411377,2.9888346195220947,0.5248115658760071
2.731672763824463,2.9584882259368896,0.5348442196846008
2.718186855316162,3.025939464569092,0.5248115658760071
2.7094783782958984,3.067838430404663,0.4948468804359436
2.711024284362793,3.127068281173706,0.5253711342811584
2.7314963340759277,3.093360424041748,0.5368952751159668
2.6961779594421387,3.1852378845214844,0.5269193053245544
2.757830858230591,1.4419804811477661,0.5448402762413025
2.7696282863616943,1.4978997707366943,0.529137909412384
2.7847983837127686,1.5422961711883545,0.5259974598884583
2.786250591278076,1.5822136402130127,0.4921203851699829
2.785642147064209,1.6367361545562744,0.4583559036254883
2.7880916595458984,2.5403687953948975,0.44272053241729736
2.796039581298828,2.597700595855713,0.4437400698661804
2.7829742431640625,2.6647286415100098,0.4448931813240051
2.796039581298828,2.7325940132141113,0.44923484325408936
2.7825515270233154,2.786529064178467,0.4537716507911682
2.7808663845062256,2.8586020469665527,0.4897726774215698
2.7589545249938965,2.9213881492614746,0.5296497941017151
2.7955572605133057,2.8977909088134766,0.5443172454833984
2.7454686164855957,3.056281328201294,0.5365896821022034
2.8193633556365967,1.5760303735733032,0.534450352191925
2.838470935821533,1.635209321975708,0.5218774080276489
2.8532280921936035,1.6693146228790283,0.5150793194770813
2.865973711013794,1.7251051664352417,0.46743279695510864
2.863765001296997,1.792946219444275,0.44658082723617554
2.869384288787842,1.8575598001480103,0.44462770223617554
2.873117446899414,1.9888430833816528,0.4432101845741272
2.873117446899414,2.393463373184204,0.442791223526001
2.8615570068359375,2.5247159004211426,0.4435375928878784
2.8567399978637695,2.5909554958343506,0.4460257887840271
2.8499960899353027,2.6516613960266113,0.44861388206481934
2.859550714492798,2.7210335731506348,0.46759033203125
2.843493700027466,2.796884298324585,0.47975510358810425
2.8299005031585693,2.866330862045288,0.5445504188537598
2.864609718322754,2.838789701461792,0.5419896245002747
2.901135206222534,1.7024654150009155,0.5303492546081543
2.9323835372924805,1.7307225465774536,0.540793240070343
2.922300338745117,1.7826441526412964,0.4759247899055481
2.922675371170044,1.8491302728652954,0.46810680627822876
2.9172184467315674,1.9228988885879517,0.4596521258354187
2.9303195476531982,1.9907703399658203,0.4644929766654968
2.929279088973999,2.0567357540130615,0.45726317167282104
2.9326024055480957,2.13012957572937,0.4469924569129944
2.931196451187134,2.1975772380828857,0.4459835886955261
2.9297902584075928,2.265017509460449,0.4455881118774414
2.9217638969421387,2.3332438468933105,0.445548415184021
2.9309160709381104,2.395390510559082,0.44795525074005127
2.9178507328033447,2.4624104499816895,0.4460587501525879
2.924172878265381,2.5235097408294678,0.4468126893043518
2.9274415969848633,2.586137533187866,0.46201151609420776
2.91253399848938,2.6620192527770996,0.47638535499572754
2.9101274013519287,2.724165916442871,0.5236558318138123
2.934570074081421,2.703930616378784,0.5415817499160767
2.902050495147705,2.791691780090332,0.5422952175140381
2.9713757038116455,1.7777764797210693,0.5428042411804199
2.9732491970062256,1.8378920555114746,0.5280016660690308
2.975778102874756,1.905332326889038,0.5259301662445068
2.977897882461548,1.9727833271026611,0.524390459060669
2.9787912368774414,2.0360159873962402,0.5235366821289062
2.989658832550049,2.0733730792999268,0.5221825838088989
2.9892637729644775,2.1202938556671143,0.4796329736709595
2.9897336959838867,2.186335325241089,0.46942681074142456
2.9897336959838867,2.253779172897339,0.46863412857055664
2.9897336959838867,2.3212015628814697,0.4686143398284912
2.9892637729644775,2.3886454105377197,0.4694071412086487
2.9892637729644775,2.4560892581939697,0.47282111644744873
2.9808244705200195,2.5275261402130127,0.4728679656982422
2.9807639122009277,2.589831829071045,0.5220448970794678
2.9980268478393555,2.5684752464294434,0.5292231440544128
2.9700570106506348,2.657085657119751,0.5414155125617981
3.032724380493164,2.1132705211639404,0.5490720868110657
3.041712760925293,2.1730868816375732,0.543386697769165
3.042121648788452,2.24896240234375,0.5369845628738403
3.037595510482788,2.314457893371582,0.5322120189666748
3.0417187213897705,2.3749940395355225,0.5422229766845703
3.0392346382141113,2.451272487640381,0.5393128395080566
3.0328176021575928,2.525118589401245,0.5420284867286682
-3.0161585807800293,-2.675330877304077,0.5725502967834473
-3.057415008544922,-2.668679714202881,0.6375324726104736
-3.0227513313293457,-2.7202908992767334,0.6378716826438904
-3.0203821659088135,-2.6129438877105713,0.5580585598945618
-3.0642178058624268,-2.60170578956604,0.6371666193008423
-3.020606517791748,-2.548330307006836,0.5572487711906433
-3.0639424324035645,-2.531873941421509,0.6297973990440369
-3.0727968215942383,-2.4735846519470215,0.6462912559509277
-3.0200178623199463,-2.4027674198150635,0.5504112839698792
-3.0641958713531494,-2.404212474822998,0.6300156712532043
-3.0205256938934326,-2.3432114124298096,0.5581822991371155
-3.064162254333496,-2.3319733142852783,0.637845516204834
-3.0115323066711426,-2.2693474292755127,0.562777578830719
-3.0590667724609375,-2.264529228210449,0.6416065096855164
-3.0067999362945557,-2.1998941898345947,0.5892229080200195
-3.0453009605407715,-2.1946771144866943,0.654362142086029
-3.0066585540771484,-2.160004138946533,0.622797429561615
-2.94770884513855,-3.015314817428589,0.5762155652046204
-2.984595775604248,-2.996960163116455,0.6215745806694031
-2.95268177986145,-3.051074266433716,0.654168426990509
-3.0042226314544678,-2.938903570175171,0.6365128755569458
-3.0080068111419678,-2.871459484100342,0.6365129351615906
-3.0087170600891113,-2.804015874862671,0.6365129351615906
-3.0092647075653076,-2.736191511154175,0.6235144138336182
-2.956825017929077,-2.205515146255493,0.5456033945083618
-2.9568963050842285,-2.1417043209075928,0.559018075466156
-2.9971935749053955,-2.1156163215637207,0.6257624626159668
-2.952768087387085,-2.0734610557556152,0.5608026385307312
-2.9967033863067627,-2.050175905227661,0.641752302646637
-2.944871187210083,-2.0015969276428223,0.56841641664505
-2.9868862628936768,-1.9844735860824585,0.6464275121688843
-2.936052083969116,-1.9456149339675903,0.6142041087150574
-2.8806540966033936,-3.1504967212677,0.5741763114929199
-2.9207189083099365,-3.1382110118865967,0.6304015517234802
-2.886647939682007,-3.1909632682800293,0.6393653154373169
-2.9381918907165527,-3.072967290878296,0.6306928992271423
-2.8883070945739746,-1.9234217405319214,0.5611186623573303
-2.929746150970459,-1.9114338159561157,0.6225224733352661
-2.885499954223633,-1.871151328086853,0.5594709515571594
-2.930177927017212,-1.8460582494735718,0.6386961340904236
-2.8782784938812256,-1.7986844778060913,0.5662311315536499
-2.920729875564575,-1.7819267511367798,0.6464948058128357
-2.8688576221466064,-1.7414180040359497,0.614271342754364
-2.802147388458252,-3.3519604206085205,0.5889825820922852
-2.8371617794036865,-3.33341121673584,0.632847249507904
-2.815812110900879,-3.376962423324585,0.6568847298622131
-2.812354326248169,-3.292006254196167,0.5652129650115967
-2.8577396869659424,-3.2752833366394043,0.630401611328125
-2.8720598220825195,-3.2080631256103516,0.6245812773704529
-2.8207013607025146,-1.72026789188385,0.565397322177887
-2.86173677444458,-1.7068578004837036,0.6410213112831116
-2.808642625808716,-1.666029930114746,0.584449052810669
-2.8406078815460205,-1.649166226387024,0.6497554183006287
-2.7992920875549316,-1.6196483373641968,0.617569625377655
-2.737478017807007,-3.488229274749756,0.576147198677063
-2.7787952423095703,-3.469965696334839,0.629587709903717
-2.749797821044922,-3.5203261375427246,0.654847264289856
-2.752615451812744,-3.4130802154541016,0.5575747489929199
-2.7992472648620605,-3.413783311843872,0.6409276723861694
-2.745206356048584,-1.5831283330917358,0.5586593747138977
-2.7945122718811035,-1.5761048793792725,0.6234775185585022
-2.739725351333618,-1.5227330923080444,0.5633153915405273
-2.7916982173919678,-1.511494755744934,0.6281622052192688
-2.738600730895996,-1.456695318222046,0.5774770975112915
-2.7818644046783447,-1.4573984146118164,0.6334585547447205
-2.7485969066619873,-1.4131361246109009,0.635786771774292
-2.7387962341308594,-0.8594573736190796,0.565886378288269
-2.789736270904541,-0.8482190370559692,0.6368931531906128
-2.7523508071899414,-0.9014890193939209,0.6373583674430847
-2.750443458557129,-0.7921497821807861,0.5583715438842773
-2.794212818145752,-0.7809078693389893,0.6387360095977783
-2.748936891555786,-0.7247022390365601,0.5678888559341431
-2.787668228149414,-0.7134640216827393,0.6390032172203064
-2.748217821121216,-0.6572799682617188,0.560289740562439
-2.792957305908203,-0.646041750907898,0.6374751329421997
-2.7416069507598877,-0.5834157466888428,0.5571048855781555
-2.793498992919922,-0.5785977840423584,0.6380409598350525
-2.739515542984009,-0.5111539363861084,0.5659294724464417
-2.789264440536499,-0.5111539363861084,0.6416065096855164
-2.7370564937591553,-0.44654032588005066,0.5892543196678162
-2.7757058143615723,-0.44132211804389954,0.6543620824813843
-2.7367751598358154,-0.4066299498081207,0.6230008006095886
-2.679692268371582,-3.548784017562866,0.5612940788269043
-2.726594924926758,-3.5497686862945557,0.6389583349227905
-2.6848676204681396,-3.598088264465332,0.6386324763298035
-2.688720941543579,-1.5290534496307373,0.5427561402320862
-2.6830999851226807,-1.4665310382843018,0.5461280345916748
-2.6857683658599854,-1.3986793756484985,0.5601864457130432
-2.725574254989624,-1.372381567955017,0.6233465671539307
-2.6806142330169678,-1.3316324949264526,0.5652156472206116
-2.7222959995269775,-1.3091561794281006,0.6245347857475281
-2.672719955444336,-1.257787823677063,0.5631487965583801
-2.7222025394439697,-1.2417336702346802,0.6242235898971558
-2.6716251373291016,-1.185528039932251,0.5643314123153687
-2.7236087322235107,-1.1742862462997437,0.6252414584159851
-2.671156883239746,-1.1180843114852905,0.5711216926574707
-2.718925714492798,-1.1068459749221802,0.6297234892845154
-2.676495313644409,-1.0574054718017578,0.5751964449882507
-2.71855092048645,-1.0394235849380493,0.6285011768341064
-2.6699111461639404,-0.9964665174484253,0.5641965270042419
-2.7213597297668457,-0.9719761610031128,0.6242576837539673
-2.686575412750244,-0.9194633960723877,0.5602677464485168
-2.7270748615264893,-0.915611982345581,0.6194323897361755
-2.687035083770752,-0.5195835828781128,0.5409877300262451
-2.6841025352478027,-0.4549698531627655,0.5450491905212402
-2.6807777881622314,-0.38260993361473083,0.5576763153076172
-2.7268083095550537,-0.3622336685657501,0.625835120677948
-2.6723694801330566,-0.3088438808917999,0.5633853077888489
-2.7256696224212646,-0.2968026399612427,0.6439975500106812
-2.669912099838257,-0.2442302405834198,0.5885798931121826
-2.704880714416504,-0.23299196362495422,0.650773286819458
-2.669565200805664,-0.20431989431381226,0.6245633363723755
-2.5963237285614014,-3.6910057067871094,0.5759812593460083
-2.6467125415802,-3.6728312969207764,0.6287730932235718
-2.6127614974975586,-3.725437641143799,0.654168426990509
-2.6115591526031494,-3.619908571243286,0.552970290184021
-2.6649227142333984,-3.618593692779541,0.6304704546928406
-2.61903715133667,-1.1939576864242554,0.5444671511650085
-2.615290403366089,-1.1293224096298218,0.5456554293632507
-2.6190969944000244,-1.059090495109558,0.546877920627594
-2.621833086013794,-0.31502437591552734,0.5407572388648987
-2.616619348526001,-0.25265979766845703,0.544621467590332
-2.6128318309783936,-0.18029984831809998,0.5565847158432007
-2.661691188812256,-0.1583186388015747,0.6396177411079407
-2.604597330093384,-0.10746645927429199,0.5726883411407471
-2.647005319595337,-0.10099539160728455,0.6479215621948242
-2.6037240028381348,-0.058290764689445496,0.629587709903717
-2.537041425704956,-3.750558376312256,0.5872484445571899
-2.5751142501831055,-3.743652820587158,0.633255124092102
-2.5448477268218994,-3.7816755771636963,0.6568847298622131
-2.5464422702789307,-3.685621500015259,0.5459432601928711
-2.5462729930877686,-0.1077318787574768,0.5417625308036804
-2.5424604415893555,-0.04048992693424225,0.5706547498703003
-2.584561347961426,-0.026100680232048035,0.6548471450805664
-2.5340301990509033,0.010632410645484924,0.6279584765434265
-2.4676527976989746,-3.8117575645446777,0.5725623965263367
-2.516050338745117,-3.810540199279785,0.6340697407722473
-2.475590705871582,-3.853851318359375,0.6487361788749695
-2.4869866371154785,-0.04517000913619995,0.5446591377258301
-2.474865436553955,0.019384488463401794,0.5823664665222168
-2.504532814025879,0.03149618208408356,0.6365147233009338
-2.472216844558716,0.06207137554883957,0.6317266225814819
-2.419938325881958,-3.8707733154296875,0.6420013308525085
-2.4020917415618896,-3.831550121307373,0.5593212246894836
-2.4024415016174316,0.10046455264091492,0.573137640953064
-2.44832706451416,0.098592109978199,0.6269399523735046
-2.4114062786102295,0.14288970828056335,0.6326437592506409
-2.3914363384246826,0.30020269751548767,0.5719045996665955
-2.447127342224121,0.3035140633583069,0.6248341798782349
-2.4023258686065674,0.2538328170776367,0.6273475289344788
-2.4024415016174316,0.36530423164367676,0.5672880411148071
-2.451490879058838,0.36518943309783936,0.6249505281448364
-2.412330150604248,0.4170506000518799,0.6311033964157104
-2.391857862472534,1.3102428913116455,0.5664872527122498
-2.454392433166504,1.3231353759765625,0.6388583183288574
-2.4097859859466553,1.2645071744918823,0.6298266649246216
-2.4028971195220947,1.3768868446350098,0.5655877590179443
-2.448887825012207,1.3834396600723267,0.6466410160064697
-2.4030258655548096,1.429665446281433,0.6272482872009277
-2.3275041580200195,-4.096561908721924,0.585763156414032
-2.369523048400879,-4.074085235595703,0.650773286819458
-2.343766212463379,-4.127342224121094,0.654847264289856
-2.323289394378662,-4.043301105499268,0.6267605423927307
-2.334139585494995,-3.885530471801758,0.5597528219223022
-2.384411096572876,-3.8880820274353027,0.6291657090187073
-2.3417296409606934,-3.9314889907836914,0.631166398525238
-2.3411529064178467,0.10373952984809875,0.5444537401199341
-2.339949131011963,0.16159263253211975,0.5731290578842163
-2.3775196075439453,0.17443470656871796,0.6297922134399414
-2.3314359188079834,0.21153493225574493,0.6242921352386475
-2.3485801219940186,0.2566450536251068,0.6249706149101257
-2.3260998725891113,0.3058236241340637,0.5776770710945129
-2.342679262161255,0.358795166015625,0.5464457869529724
-2.3407514095306396,0.4226433336734772,0.5729284882545471
-2.3865139484405518,0.44500505924224854,0.6381902098655701
-2.3311171531677246,0.4771840274333954,0.6514135599136353
-2.323087692260742,0.6312564015388489,0.57831209897995
-2.3724608421325684,0.6362060308456421,0.6310821175575256
-2.338740825653076,0.5903239250183105,0.6324402689933777
-2.3321871757507324,0.6999014616012573,0.5916997790336609
-2.363098621368408,0.6940653324127197,0.6460204124450684
-2.3319997787475586,0.733055830001831,0.6275517344474792
-2.3471755981445312,1.2570182085037231,0.6217907071113586
-2.324695587158203,1.3113656044006348,0.5606223940849304
-2.335935592651367,1.3770877122879028,0.5411832332611084
-2.3406715393066406,1.4443368911743164,0.5543208122253418
-2.3913090229034424,1.455418348312378,0.6369406580924988
-2.335639715194702,1.5117530822753906,0.5653690099716187
-2.3850603103637695,1.5116561651229858,0.6531012654304504
-2.3355252742767334,1.5645933151245117,0.6273300647735596
-2.263686180114746,-4.141778945922852,0.5810085535049438
-2.3134584426879883,-4.1493964195251465,0.6316248178482056
-2.274683952331543,-4.18424129486084,0.6487361788749695
-2.2685024738311768,-4.075613498687744,0.5610035061836243
-2.2680206298828125,-4.0270676612854,0.6181755065917969
-2.2669546604156494,-3.954073905944824,0.5732643008232117
-2.3140201568603516,-3.9483518600463867,0.6249023079872131
-2.2798211574554443,-3.9892401695251465,0.6343753337860107
-2.261477470397949,-3.897907257080078,0.5426539182662964
-2.276585578918457,0.1628562957048416,0.545674204826355
-2.2709100246429443,0.22743257880210876,0.5891908407211304
-2.3022119998931885,0.23345652222633362,0.6314219832420349
-2.268500804901123,0.26437875628471375,0.6310821175575256
-2.2971572875976562,0.2871343195438385,0.6324394345283508
-2.271029472351074,0.31580209732055664,0.623068630695343
-2.279217481613159,0.3703532814979553,0.5754304528236389
-2.2853565216064453,0.4314373731613159,0.6194840669631958
-2.256755828857422,0.41525256633758545,0.6380621194839478
-2.2699053287506104,0.5818943977355957,0.5991688966751099
-2.3055834770202637,0.572344183921814,0.6283663511276245
-2.273317337036133,0.5416865348815918,0.6574667096138
-2.2586686611175537,0.6415901780128479,0.5757400989532471
-2.2685024738311768,0.7027136087417603,0.5608017444610596
-2.2729177474975586,0.7677479982376099,0.564344048500061
-2.3198764324188232,0.7677479982376099,0.6414610147476196
-2.2738401889801025,0.8299925327301025,0.5762144923210144
-2.3080661296844482,0.8305563926696777,0.6528098583221436
-2.256561279296875,0.8766824007034302,0.6375316381454468
-2.2716622352600098,1.265622615814209,0.6418730616569519
-2.2586686611175537,1.3194831609725952,0.5802409052848816
-2.2685024738311768,1.3770877122879028,0.5478811860084534
-2.2685024738311768,1.4445101022720337,0.5408325791358948
-2.2685024738311768,1.5119539499282837,0.5405016541481018
-2.2731990814208984,1.5791099071502686,0.5617329478263855
-2.319791793823242,1.5934805870056152,0.651820957660675
-2.268028974533081,1.632504940032959,0.6192764043807983
-2.2268245220184326,-4.1618499755859375,0.654847264289856
-2.2029669284820557,-4.138092994689941,0.6294854879379272
-2.1964027881622314,-4.083973407745361,0.5653548836708069
-2.209197759628296,-4.013782501220703,0.5582250952720642
-2.2593491077423096,-4.0096259117126465,0.6204073429107666
-2.2010695934295654,-3.948653221130371,0.5436233282089233
-2.20869517326355,0.22944030165672302,0.5474167466163635
-2.2094991207122803,0.2868516743183136,0.5923293232917786
-2.2347824573516846,0.2980934977531433,0.6334585547447205
-2.193843126296997,0.3291318118572235,0.6318297386169434
-2.2247061729431152,0.3679458498954773,0.6496087908744812
-2.2330963611602783,0.5678460597991943,0.6462923288345337
-2.223546028137207,0.6191136837005615,0.6344772577285767
-2.196854591369629,0.6493203639984131,0.6354950666427612
-2.1962521076202393,0.6997036933898926,0.565504789352417
-2.2078139781951904,0.7634153366088867,0.5497344136238098
-2.200958251953125,0.8328975439071655,0.5579701066017151
-2.195326566696167,0.8933801651000977,0.6214122772216797
-2.222985029220581,1.3045904636383057,0.6438473463058472
-2.1974573135375977,1.3369556665420532,0.645244300365448
-2.1986613273620605,1.3801019191741943,0.5874083638191223
-2.2010695934295654,1.4445101022720337,0.5476793646812439
-2.2010695934295654,1.5119539499282837,0.5418181419372559
-2.2010695934295654,1.5794049501419067,0.5454186797142029
-2.21205472946167,1.6408333778381348,0.5698707103729248
-2.250117063522339,1.6546847820281982,0.6268834471702576
-2.2008779048919678,1.693075180053711,0.6353517770767212
-2.1516523361206055,-4.094686031341553,0.653064489364624
-2.128180503845215,-4.070312023162842,0.6388050317764282
-2.1336257457733154,-4.027040958404541,0.5693210363388062
-2.1328227519989014,-3.9685826301574707,0.5434020757675171
-2.1434590816497803,0.29715460538864136,0.5568577647209167
-2.1276533603668213,0.352426677942276,0.6132239103317261
-2.13362193107605,0.5678492784500122,0.5937336683273315
-2.1743710041046143,0.5776832103729248,0.6456804871559143
-2.1448638439178467,0.5313204526901245,0.649754524230957
-2.1285643577575684,0.6023979783058167,0.647513747215271
-2.140369176864624,0.6625314354896545,0.6304023861885071
-2.1268811225891113,0.6987793445587158,0.5745851993560791
-2.137314558029175,0.7581659555435181,0.5494251847267151
-2.1468777656555176,0.9105808734893799,0.5691292881965637
-2.1831541061401367,0.9141921997070312,0.6529874205589294
-2.123823404312134,0.9569048881530762,0.6296806335449219
-2.1639750003814697,1.3689464330673218,0.6430327892303467
-2.127803325653076,1.3912873268127441,0.642042875289917
-2.1294097900390625,1.4455944299697876,0.5708107948303223
-2.1336257457733154,1.5119539499282837,0.5489142537117004
-2.1336257457733154,1.5794049501419067,0.5553395748138428
-2.1448657512664795,1.6437854766845703,0.5846978425979614
-2.1223857402801514,1.6831140518188477,0.6290903687477112
-2.0729334354400635,-4.065609931945801,0.6304023861885071
-2.0613715648651123,-4.0207438468933105,0.5609896779060364
-2.0725114345550537,0.36811432242393494,0.572342574596405
-2.1146554946899414,0.3729751408100128,0.6253459453582764
-2.065924882888794,0.4133645296096802,0.6342393755912781
-2.099057197570801,0.5627925395965576,0.647513747215271
-2.0783653259277344,0.6675820350646973,0.6385512351989746
-2.07405686378479,0.7046808004379272,0.5701042413711548
-2.066189765930176,0.9718936681747437,0.636513352394104
-2.08388614654541,1.4330228567123413,0.6384345293045044
-2.0579833984375,1.4587230682373047,0.6385838985443115
-2.0695626735687256,1.5125170946121216,0.5736685395240784
-2.071809768676758,1.5794049501419067,0.5854573845863342
-2.0802395343780518,1.641231656074524,0.5963566899299622
-2.0628178119659424,1.6738190650939941,0.6330517530441284
-2.0165421962738037,-4.073808670043945,0.6380235552787781
-1.9959347248077393,-4.034093379974365,0.5598305463790894
-2.005971670150757,0.3718567490577698,0.5592463612556458
-1.992563009262085,0.41995665431022644,0.6152595281600952
-2.0344297885894775,0.5644756555557251,0.6263270974159241
-1.992000699043274,0.5265316963195801,0.6263270974159241
-1.9959347248077393,0.6076494455337524,0.6198760867118835
-2.031339168548584,0.7013061046600342,0.6267359852790833
-2.010511636734009,0.737483024597168,0.635495126247406
-1.9895236492156982,0.7735824584960938,0.5827346444129944
-2.0036072731018066,0.9623470306396484,0.6303455233573914
-1.9863003492355347,1.0374815464019775,0.588861882686615
-2.029323101043701,1.042698621749878,0.6446626782417297
-2.0079896450042725,1.0028083324432373,0.6418479084968567
-1.99312424659729,1.104521632194519,0.593226969242096
-2.0295796394348145,1.104521632194519,0.6427947282791138
-1.9945296049118042,1.1444212198257446,0.6232730746269226
-2.0189833641052246,1.5075719356536865,0.6399356722831726
-2.030219793319702,1.5681631565093994,0.6277254819869995
-2.0352776050567627,1.63280189037323,0.629627525806427
-1.9292055368423462,-4.082809925079346,0.5698458552360535
-1.9768297672271729,-4.083395957946777,0.6202943325042725
-1.9411461353302002,-4.126707553863525,0.6471512317657471
-1.930750846862793,0.44068264961242676,0.5643314123153687
-1.9827308654785156,0.44911226630210876,0.6257849335670471
-1.9356962442398071,0.49197113513946533,0.5837117433547974
-1.972616195678711,0.4982943832874298,0.6293841004371643
-1.934924840927124,0.5379847288131714,0.6411696672439575
-1.92464017868042,0.5678492784500122,0.591693103313446
-1.949579119682312,0.567847490310669,0.6266664266586304
-1.9678925275802612,0.7825431823730469,0.6434979438781738
-1.9358489513397217,0.8443220853805542,0.6267349123954773
-1.9417243003845215,0.9004517793655396,0.6370120644569397
-1.97907555103302,0.9701287746429443,0.6259238719940186
-1.930609941482544,0.9254107475280762,0.6261839866638184
-1.9260945320129395,0.9780890941619873,0.5682727098464966
-1.9245691299438477,1.046632170677185,0.5472550988197327
-1.931312084197998,1.107333779335022,0.5521040558815002
-1.9355274438858032,1.1723681688308716,0.5656838417053223
-1.981891393661499,1.1888246536254883,0.6237331032752991
-1.9355283975601196,1.2337689399719238,0.5824893116950989
-1.969245195388794,1.2472549676895142,0.6299363970756531
-1.918669581413269,1.2837811708450317,0.6237474083900452
-1.9168645143508911,1.4396941661834717,0.5998482704162598
-1.9481748342514038,1.4445083141326904,0.6365147233009338
-1.9313147068023682,1.4192248582839966,0.6365147233009338
-1.9228860139846802,1.4726183414459229,0.640588641166687
-1.8771265745162964,-4.139738082885742,0.6403933167457581
-1.8526389598846436,-4.095432281494141,0.5601202249526978
-1.8680938482284546,0.4410736560821533,0.5449783205986023
-1.8751190900802612,0.4975913465023041,0.571801483631134
-1.859061598777771,0.5476205348968506,0.6332148313522339
-1.8613516092300415,0.7659462690353394,0.5729548931121826
-1.8942290544509888,0.7785885334014893,0.6291798949241638
-1.8512346744537354,0.7357432842254639,0.6344754695892334
-1.870906114578247,0.8249355554580688,0.5774367451667786
-1.8942290544509888,0.8291488885879517,0.6438462734222412
-1.8561525344848633,0.871994137763977,0.6202160120010376
-1.8686959743499756,0.918656587600708,0.6320664882659912
-1.8526389598846436,0.9736405611038208,0.5615102052688599
-1.8638789653778076,1.0398900508880615,0.543044924736023
-1.8638789653778076,1.107333779335022,0.5432036519050598
-1.8638789653778076,1.174777626991272,0.5460481643676758
-1.8686959743499756,1.2453289031982422,0.5623717308044434
-1.8627548217773438,1.2978324890136719,0.6199725866317749
-1.8652851581573486,1.3911381959915161,0.601885199546814
-1.9039249420166016,1.3935271501541138,0.6462919116020203
-1.8706254959106445,1.353497862815857,0.6330097913742065
-1.8621931076049805,1.4512523412704468,0.5851795673370361
-1.8751208782196045,1.5007121562957764,0.601885199546814
-1.8976035118103027,1.5143613815307617,0.653974711894989
-1.8526408672332764,1.5344232320785522,0.6528106927871704
-1.811889886856079,-4.13981819152832,0.6234981417655945
-1.7855967283248901,-4.0990729331970215,0.5570464730262756
-1.803810954093933,0.5018051862716675,0.5644518136978149
-1.7930632829666138,0.5537832975387573,0.6240199208259583
-1.7922195196151733,0.7339167594909668,0.6242900490760803
-1.8048639297485352,0.8738206624984741,0.6414013504981995
-1.7971382141113281,0.9272454977035522,0.6382113695144653
-1.785898208618164,0.9792579412460327,0.5710993409156799
-1.7964352369308472,1.0398900508880615,0.5450689196586609
-1.7964352369308472,1.107333779335022,0.5437336564064026
-1.7964352369308472,1.174777626991272,0.545066237449646
-1.7964352369308472,1.2422000169754028,0.550222635269165
-1.8067371845245361,1.3025236129760742,0.5767990946769714
-1.841391682624817,1.315826177597046,0.6268377304077148
-1.7908141613006592,1.3497984409332275,0.6288027763366699
-1.8343719244003296,1.3798999786376953,0.6414370536804199
-1.828465461730957,1.437766432762146,0.6340697407722473
-1.831360936164856,1.4975001811981201,0.645244300365448
-1.7281996011734009,-4.141794681549072,0.5793582797050476
-1.7745198011398315,-4.150803565979004,0.6203525066375732
-1.7338184118270874,-4.191963195800781,0.6526157259941101
-1.736026406288147,-4.0934014320373535,0.5435206890106201
-1.7318106889724731,0.509303092956543,0.5502773523330688
-1.731411099433899,0.5670429468154907,0.5835512280464172
-1.766937017440796,0.5837668180465698,0.6272331476211548
-1.730689525604248,0.6268388032913208,0.5868088603019714
-1.766935110092163,0.633158802986145,0.6280255317687988
-1.727948784828186,0.6764779090881348,0.6349173188209534
-1.7570959329605103,0.7828019857406616,0.6324380040168762
-1.7601858377456665,0.841791033744812,0.6242900490760803
-1.7467063665390015,0.9609516859054565,0.6385506987571716
-1.7298457622528076,0.9853838682174683,0.6198101043701172
-1.7241857051849365,1.0378811359405518,0.5637760758399963
-1.7290019989013672,1.107333779335022,0.547532320022583
-1.7290019989013672,1.174777626991272,0.5485402941703796
-1.735744833946228,1.2354563474655151,0.5538484454154968
-1.736225962638855,1.3016159534454346,0.5897881388664246
-1.7264710664749146,1.3456292152404785,0.6426259875297546
-1.683484435081482,-4.164186477661133,0.639245867729187
-1.666185975074768,-4.144998550415039,0.6105272173881531
-1.6699985265731812,0.5594178438186646,0.5580845475196838
-1.6671885251998901,0.6284461617469788,0.5756925344467163
-1.6559487581253052,0.6751736402511597,0.6299546957015991
-1.6756194829940796,1.0066450834274292,0.629724383354187
-1.6598851680755615,1.0500026941299438,0.5957739949226379
-1.6579567193984985,1.10853910446167,0.5724080801010132
-1.6683133840560913,1.1680353879928589,0.5578031539916992
-1.6699985265731812,1.2400944232940674,0.5878304839134216
-1.688658356666565,1.3141635656356812,0.6439352631568909
-1.6552470922470093,1.2793017625808716,0.642014741897583
-1.5821819305419922,-4.158391952514648,0.5703057050704956
-1.6371186971664429,-4.156795501708984,0.6184671521186829
-1.5983397960662842,-4.200597286224365,0.651560366153717
-1.5980358123779297,0.23099221289157867,0.5422253012657166
-1.5990419387817383,0.5813652873039246,0.5636857748031616
-1.6132289171218872,0.6332998275756836,0.6204214096069336
-1.5851315259933472,0.6243034601211548,0.6236809492111206
-1.6329069137573242,1.0365166664123535,0.6381439566612244
-1.6166106462478638,1.0918772220611572,0.6280573010444641
-1.5974960327148438,1.129260778427124,0.622291624546051
-1.60737144947052,1.1795965433120728,0.5852953195571899
-1.6209214925765991,1.247877836227417,0.6422511339187622
-1.5861753225326538,1.220296025276184,0.6396569609642029
-1.5334328413009644,-4.200399875640869,0.6291798949241638
-1.5154483318328857,-4.158158779144287,0.5635153651237488
-1.5266883373260498,0.5767433643341064,0.5553691387176514
-1.5351197719573975,0.6261371374130249,0.5920387506484985
-1.5570405721664429,0.6445387601852417,0.6334596276283264
-1.5126396417617798,0.6675927639007568,0.6314219832420349
-1.555107593536377,1.1699638366699219,0.6525457501411438
-1.5266919136047363,1.3096438646316528,0.5841293334960938
-1.4728938341140747,-4.203779220581055,0.6397146582603455
-1.4480044841766357,-4.1601715087890625,0.565011203289032
-1.4659881591796875,0.5712207555770874,0.5558446645736694
-1.4652656316757202,0.6268412470817566,0.5812214612960815
-1.4541853666305542,0.6706712245941162,0.6352922320365906
-1.3966277837753296,-4.20580530166626,0.6360481381416321
-1.3805731534957886,-4.161548614501953,0.5620903968811035
-1.4050568342208862,0.5762760043144226,0.587042510509491
-1.413723349571228,0.6302091479301453,0.6255146265029907
-1.38422691822052,0.6049290895462036,0.6426259875297546
-1.388443112373352,0.8476924896240234,0.6071818470954895
-1.4227228164672852,0.8516267538070679,0.6300642490386963
-1.3869966268539429,0.8122931718826294,0.6440798044204712
-1.3869980573654175,0.9058263301849365,0.5981018543243408
-1.4267375469207764,0.9188748598098755,0.6443718671798706
-1.3951860666275024,0.965725302696228,0.5900694727897644
-1.4221622943878174,0.9792112112045288,0.6340697407722473
-1.390307903289795,1.03507399559021,0.5704525709152222
-1.4330230951309204,1.0398900508880615,0.6399089694023132
-1.3957456350326538,1.1005886793136597,0.5749941468238831
-1.4353636503219604,1.107333779335022,0.6419464349746704
-1.3873977661132812,1.161533236503601,0.5809308886528015
-1.4295462369918823,1.179593563079834,0.6365139484405518
-1.3960280418395996,1.229555606842041,0.5794742107391357
-1.427215576171875,1.2472549676895142,0.6316248178482056
-1.3943424224853516,1.2809717655181885,0.6202169060707092
-1.3813377618789673,1.3769258260726929,0.5630243420600891
-1.4403550624847412,1.3886058330535889,0.624189555644989
-1.4041199684143066,1.3315579891204834,0.6292627453804016
-1.397799015045166,1.437766432762146,0.5627263784408569
-1.445224404335022,1.4557483196258545,0.6241599917411804
-1.3887614011764526,1.499910593032837,0.5576444864273071
-1.444551944732666,1.5231958627700806,0.6233115792274475
